0.0 -720.0 0.0
0.0 -699.0 0.0
0.0 -698.0 0.0
0.0 -697.0 0.0
0.0 -696.0 0.0
0.0 -695.0 0.0
0.0 -694.0 0.0
0.0 -693.0 0.0
0.0 -692.0 0.0
0.0 -691.0 0.0
0.0 -690.0 0.0
0.0 -689.0 0.0
0.0 -688.0 0.0
0.0 -687.0 0.0
0.0 -686.0 0.0
0.0 -685.0 0.0
0.0 -684.0 0.0
0.0 -683.0 0.0
0.0 -682.0 0.0
0.0 -681.0 0.0
0.0 -680.0 0.0
0.0 -659.0 0.0
0.0 -658.0 0.0
0.0 -657.0 0.0
0.0 -656.0 0.0
0.0 -655.0 0.0
0.0 -654.0 0.0
0.0 -653.0 0.0
0.0 -652.0 0.0
0.0 -651.0 0.0
0.0 -650.0 0.0
0.0 -649.0 0.0
0.0 -648.0 0.0
0.0 -647.0 0.0
0.0 -646.0 0.0
0.0 -645.0 0.0
0.0 -644.0 0.0
0.0 -643.0 0.0
0.0 -642.0 0.0
0.0 -641.0 0.0
0.0 -640.0 0.0
0.0 -619.0 0.0
0.0 -618.0 0.0
0.0 -617.0 0.0
0.0 -616.0 0.0
0.0 -615.0 0.0
0.0 -614.0 0.0
0.0 -613.0 0.0
0.0 -612.0 0.0
0.0 -611.0 0.0
0.0 -610.0 0.0
0.0 -609.0 0.0
0.0 -608.0 0.0
0.0 -607.0 0.0
0.0 -606.0 0.0
0.0 -605.0 0.0
0.0 -604.0 0.0
0.0 -603.0 0.0
0.0 -602.0 0.0
0.0 -601.0 0.0
0.0 -600.0 0.0
0.0 -579.0 0.0
0.0 -578.0 0.0
0.0 -577.0 0.0
0.0 -576.0 0.0
0.0 -575.0 0.0
0.0 -574.0 0.0
0.0 -573.0 0.0
0.0 -572.0 0.0
0.0 -571.0 0.0
0.0 -570.0 0.0
0.0 -569.0 0.0
0.0 -568.0 0.0
0.0 -567.0 0.0
0.0 -566.0 0.0
0.0 -565.0 0.0
0.0 -564.0 0.0
0.0 -563.0 0.0
0.0 -562.0 0.0
0.0 -561.0 0.0
0.0 -560.0 0.0
0.0 -539.0 0.0
0.0 -538.0 0.0
0.0 -537.0 0.0
0.0 -536.0 0.0
0.0 -535.0 0.0
0.0 -534.0 0.0
0.0 -533.0 0.0
0.0 -532.0 0.0
0.0 -531.0 0.0
0.0 -530.0 0.0
0.0 -529.0 0.0
0.0 -528.0 0.0
0.0 -527.0 0.0
0.0 -526.0 0.0
0.0 -525.0 0.0
0.0 -524.0 0.0
0.0 -523.0 0.0
0.0 -522.0 0.0
0.0 -521.0 0.0
0.0 -520.0 0.0
0.0 -499.0 0.0
0.0 -498.0 0.0
0.0 -497.0 0.0
0.0 -496.0 0.0
0.0 -495.0 0.0
0.0 -494.0 0.0
0.0 -493.0 0.0
0.0 -492.0 0.0
0.0 -491.0 0.0
0.0 -490.0 0.0
0.0 -489.0 0.0
0.0 -488.0 0.0
0.0 -487.0 0.0
0.0 -486.0 0.0
0.0 -485.0 0.0
0.0 -484.0 0.0
0.0 -483.0 0.0
0.0 -482.0 0.0
0.0 -481.0 0.0
0.0 -480.0 0.0
0.0 -459.0 0.0
0.0 -458.0 0.0
0.0 -457.0 0.0
0.0 -456.0 0.0
0.0 -455.0 0.0
0.0 -454.0 0.0
0.0 -453.0 0.0
0.0 -452.0 0.0
0.0 -451.0 0.0
0.0 -450.0 0.0
0.0 -449.0 0.0
0.0 -448.0 0.0
0.0 -447.0 0.0
0.0 -446.0 0.0
0.0 -445.0 0.0
0.0 -444.0 0.0
0.0 -443.0 0.0
0.0 -442.0 0.0
0.0 -441.0 0.0
0.0 -440.0 0.0
0.0 -419.0 0.0
0.0 -418.0 0.0
0.0 -417.0 0.0
0.0 -416.0 0.0
0.0 -415.0 0.0
0.0 -414.0 0.0
0.0 -413.0 0.0
0.0 -412.0 0.0
0.0 -411.0 0.0
0.0 -410.0 0.0
0.0 -409.0 0.0
0.0 -408.0 0.0
0.0 -407.0 0.0
0.0 -406.0 0.0
0.0 -405.0 0.0
0.0 -404.0 0.0
0.0 -403.0 0.0
0.0 -402.0 0.0
0.0 -401.0 0.0
0.0 -400.0 0.0
0.0 -379.0 0.0
0.0 -378.0 0.0
0.0 -377.0 0.0
0.0 -376.0 0.0
0.0 -375.0 0.0
0.0 -374.0 0.0
0.0 -373.0 0.0
0.0 -372.0 0.0
0.0 -371.0 0.0
0.0 -370.0 0.0
0.0 -369.0 0.0
0.0 -368.0 0.0
0.0 -367.0 0.0
0.0 -366.0 0.0
0.0 -365.0 0.0
0.0 -364.0 0.0
0.0 -363.0 0.0
0.0 -362.0 0.0
0.0 -361.0 0.0
0.0 -360.0 0.0
0.0 -339.0 0.0
0.0 -338.0 0.0
0.0 -337.0 0.0
0.0 -336.0 0.0
0.0 -335.0 0.0
0.0 -334.0 0.0
0.0 -333.0 0.0
0.0 -332.0 0.0
0.0 -331.0 0.0
0.0 -330.0 0.0
0.0 -329.0 0.0
0.0 -328.0 0.0
0.0 -327.0 0.0
0.0 -326.0 0.0
0.0 -325.0 0.0
0.0 -324.0 0.0
0.0 -323.0 0.0
0.0 -322.0 0.0
0.0 -321.0 0.0
0.0 -320.0 0.0
0.0 -299.0 0.0
0.0 -298.0 0.0
0.0 -297.0 0.0
0.0 -296.0 0.0
0.0 -295.0 0.0
0.0 -294.0 0.0
0.0 -293.0 0.0
0.0 -292.0 0.0
0.0 -291.0 0.0
0.0 -290.0 0.0
0.0 -289.0 0.0
0.0 -288.0 0.0
0.0 -287.0 0.0
0.0 -286.0 0.0
0.0 -285.0 0.0
0.0 -284.0 0.0
0.0 -283.0 0.0
0.0 -282.0 0.0
0.0 -281.0 0.0
0.0 -280.0 0.0
0.0 -259.0 0.0
0.0 -258.0 0.0
0.0 -257.0 0.0
0.0 -256.0 0.0
0.0 -255.0 0.0
0.0 -254.0 0.0
0.0 -253.0 0.0
0.0 -252.0 0.0
0.0 -251.0 0.0
0.0 -250.0 0.0
0.0 -249.0 0.0
0.0 -248.0 0.0
0.0 -247.0 0.0
0.0 -246.0 0.0
0.0 -245.0 0.0
0.0 -244.0 0.0
0.0 -243.0 0.0
0.0 -242.0 0.0
0.0 -241.0 0.0
0.0 -240.0 0.0
0.0 -219.0 0.0
0.0 -218.0 0.0
0.0 -217.0 0.0
0.0 -216.0 0.0
0.0 -215.0 0.0
0.0 -214.0 0.0
0.0 -213.0 0.0
0.0 -212.0 0.0
0.0 -211.0 0.0
0.0 -210.0 0.0
0.0 -209.0 0.0
0.0 -208.0 0.0
0.0 -207.0 0.0
0.0 -206.0 0.0
0.0 -205.0 0.0
0.0 -204.0 0.0
0.0 -203.0 0.0
0.0 -202.0 0.0
0.0 -201.0 0.0
0.0 -200.0 0.0
0.0 -179.0 0.0
0.0 -178.0 0.0
0.0 -177.0 0.0
0.0 -176.0 0.0
0.0 -175.0 0.0
0.0 -174.0 0.0
0.0 -173.0 0.0
0.0 -172.0 0.0
0.0 -171.0 0.0
0.0 -170.0 0.0
0.0 -169.0 0.0
0.0 -168.0 0.0
0.0 -167.0 0.0
0.0 -166.0 0.0
0.0 -165.0 0.0
0.0 -164.0 0.0
0.0 -163.0 0.0
0.0 -162.0 0.0
0.0 -161.0 0.0
0.0 -160.0 0.0
0.0 -139.0 0.0
0.0 -138.0 0.0
0.0 -137.0 0.0
0.0 -136.0 0.0
0.0 -135.0 0.0
0.0 -134.0 0.0
0.0 -133.0 0.0
0.0 -132.0 0.0
0.0 -131.0 0.0
0.0 -130.0 0.0
0.0 -129.0 0.0
0.0 -128.0 0.0
0.0 -127.0 0.0
0.0 -126.0 0.0
0.0 -125.0 0.0
0.0 -124.0 0.0
0.0 -123.0 0.0
0.0 -122.0 0.0
0.0 -121.0 0.0
0.0 -120.0 0.0
0.0 -99.0 0.0
0.0 -98.0 0.0
0.0 -97.0 0.0
0.0 -96.0 0.0
0.0 -95.0 0.0
0.0 -94.0 0.0
0.0 -93.0 0.0
0.0 -92.0 0.0
0.0 -91.0 0.0
0.0 -90.0 0.0
0.0 -89.0 0.0
0.0 -88.0 0.0
0.0 -87.0 0.0
0.0 -86.0 0.0
0.0 -85.0 0.0
0.0 -84.0 0.0
0.0 -83.0 0.0
0.0 -82.0 0.0
0.0 -81.0 0.0
0.0 -80.0 0.0
0.0 -59.0 0.0
0.0 -58.0 0.0
0.0 -57.0 0.0
0.0 -56.0 0.0
0.0 -55.0 0.0
0.0 -54.0 0.0
0.0 -53.0 0.0
0.0 -52.0 0.0
0.0 -51.0 0.0
0.0 -50.0 0.0
0.0 -49.0 0.0
0.0 -48.0 0.0
0.0 -47.0 0.0
0.0 -46.0 0.0
0.0 -45.0 0.0
0.0 -44.0 0.0
0.0 -43.0 0.0
0.0 -42.0 0.0
0.0 -41.0 0.0
0.0 -40.0 0.0
0.0 -19.0 0.0
0.0 -18.0 0.0
0.0 -17.0 0.0
0.0 -16.0 0.0
0.0 -15.0 0.0
0.0 -14.0 0.0
0.0 -13.0 0.0
0.0 -12.0 0.0
0.0 -11.0 0.0
0.0 -10.0 0.0
0.0 -9.0 0.0
0.0 -8.0 0.0
0.0 -7.0 0.0
0.0 -6.0 0.0
0.0 -5.0 0.0
0.0 -4.0 0.0
0.0 -3.0 0.0
0.0 -2.0 0.0
0.0 -1.0 0.0
60.0 -1060.0 0.0
120.0 -1060.0 0.0
60.0 -1059.0 0.0
120.0 -1059.0 0.0
60.0 -1058.0 0.0
120.0 -1058.0 0.0
60.0 -1057.0 0.0
120.0 -1057.0 0.0
60.0 -1056.0 0.0
120.0 -1056.0 0.0
60.0 -1055.0 0.0
120.0 -1055.0 0.0
60.0 -1054.0 0.0
120.0 -1054.0 0.0
60.0 -1053.0 0.0
120.0 -1053.0 0.0
60.0 -1052.0 0.0
120.0 -1052.0 0.0
60.0 -1051.0 0.0
120.0 -1051.0 0.0
60.0 -1050.0 0.0
120.0 -1050.0 0.0
60.0 -1049.0 0.0
120.0 -1049.0 0.0
60.0 -1048.0 0.0
120.0 -1048.0 0.0
60.0 -1047.0 0.0
120.0 -1047.0 0.0
60.0 -1046.0 0.0
120.0 -1046.0 0.0
60.0 -1045.0 0.0
120.0 -1045.0 0.0
60.0 -1044.0 0.0
120.0 -1044.0 0.0
60.0 -1043.0 0.0
120.0 -1043.0 0.0
60.0 -1042.0 0.0
120.0 -1042.0 0.0
60.0 -1041.0 0.0
120.0 -1041.0 0.0
60.0 -1040.0 0.0
120.0 -1040.0 0.0
60.0 -1039.0 0.0
120.0 -1039.0 0.0
60.0 -1038.0 0.0
120.0 -1038.0 0.0
60.0 -1037.0 0.0
120.0 -1037.0 0.0
60.0 -1036.0 0.0
120.0 -1036.0 0.0
60.0 -1035.0 0.0
120.0 -1035.0 0.0
60.0 -1034.0 0.0
120.0 -1034.0 0.0
60.0 -1033.0 0.0
120.0 -1033.0 0.0
60.0 -1032.0 0.0
120.0 -1032.0 0.0
60.0 -1031.0 0.0
120.0 -1031.0 0.0
60.0 -1030.0 0.0
120.0 -1030.0 0.0
60.0 -1029.0 0.0
120.0 -1029.0 0.0
60.0 -1028.0 0.0
120.0 -1028.0 0.0
60.0 -1027.0 0.0
120.0 -1027.0 0.0
60.0 -1026.0 0.0
120.0 -1026.0 0.0
60.0 -1025.0 0.0
120.0 -1025.0 0.0
60.0 -1024.0 0.0
120.0 -1024.0 0.0
60.0 -1023.0 0.0
120.0 -1023.0 0.0
60.0 -1022.0 0.0
120.0 -1022.0 0.0
60.0 -1021.0 0.0
120.0 -1021.0 0.0
60.0 -1020.0 0.0
120.0 -1020.0 0.0
60.0 -1019.0 0.0
120.0 -1019.0 0.0
60.0 -1018.0 0.0
120.0 -1018.0 0.0
60.0 -1017.0 0.0
120.0 -1017.0 0.0
60.0 -1016.0 0.0
120.0 -1016.0 0.0
60.0 -1015.0 0.0
120.0 -1015.0 0.0
60.0 -1014.0 0.0
120.0 -1014.0 0.0
60.0 -1013.0 0.0
120.0 -1013.0 0.0
60.0 -1012.0 0.0
120.0 -1012.0 0.0
60.0 -1011.0 0.0
120.0 -1011.0 0.0
60.0 -1010.0 0.0
120.0 -1010.0 0.0
60.0 -1009.0 0.0
120.0 -1009.0 0.0
60.0 -1008.0 0.0
120.0 -1008.0 0.0
60.0 -1007.0 0.0
120.0 -1007.0 0.0
60.0 -1006.0 0.0
120.0 -1006.0 0.0
60.0 -1005.0 0.0
120.0 -1005.0 0.0
60.0 -1004.0 0.0
120.0 -1004.0 0.0
60.0 -1003.0 0.0
120.0 -1003.0 0.0
60.0 -1002.0 0.0
120.0 -1002.0 0.0
60.0 -1001.0 0.0
120.0 -1001.0 0.0
60.0 -1060.0 0.0
60.0 -1000.0 0.0
61.0 -1060.0 0.0
61.0 -1000.0 0.0
62.0 -1060.0 0.0
62.0 -1000.0 0.0
63.0 -1060.0 0.0
63.0 -1000.0 0.0
64.0 -1060.0 0.0
64.0 -1000.0 0.0
65.0 -1060.0 0.0
65.0 -1000.0 0.0
66.0 -1060.0 0.0
66.0 -1000.0 0.0
67.0 -1060.0 0.0
67.0 -1000.0 0.0
68.0 -1060.0 0.0
68.0 -1000.0 0.0
69.0 -1060.0 0.0
69.0 -1000.0 0.0
70.0 -1060.0 0.0
70.0 -1000.0 0.0
71.0 -1060.0 0.0
71.0 -1000.0 0.0
72.0 -1060.0 0.0
72.0 -1000.0 0.0
73.0 -1060.0 0.0
73.0 -1000.0 0.0
74.0 -1060.0 0.0
74.0 -1000.0 0.0
75.0 -1060.0 0.0
75.0 -1000.0 0.0
76.0 -1060.0 0.0
76.0 -1000.0 0.0
77.0 -1060.0 0.0
77.0 -1000.0 0.0
78.0 -1060.0 0.0
78.0 -1000.0 0.0
79.0 -1060.0 0.0
79.0 -1000.0 0.0
80.0 -1060.0 0.0
80.0 -1000.0 0.0
81.0 -1060.0 0.0
81.0 -1000.0 0.0
82.0 -1060.0 0.0
82.0 -1000.0 0.0
83.0 -1060.0 0.0
83.0 -1000.0 0.0
84.0 -1060.0 0.0
84.0 -1000.0 0.0
85.0 -1060.0 0.0
85.0 -1000.0 0.0
86.0 -1060.0 0.0
86.0 -1000.0 0.0
87.0 -1060.0 0.0
87.0 -1000.0 0.0
88.0 -1060.0 0.0
88.0 -1000.0 0.0
89.0 -1060.0 0.0
89.0 -1000.0 0.0
90.0 -1060.0 0.0
90.0 -1000.0 0.0
91.0 -1060.0 0.0
91.0 -1000.0 0.0
92.0 -1060.0 0.0
92.0 -1000.0 0.0
93.0 -1060.0 0.0
93.0 -1000.0 0.0
94.0 -1060.0 0.0
94.0 -1000.0 0.0
95.0 -1060.0 0.0
95.0 -1000.0 0.0
96.0 -1060.0 0.0
96.0 -1000.0 0.0
97.0 -1060.0 0.0
97.0 -1000.0 0.0
98.0 -1060.0 0.0
98.0 -1000.0 0.0
99.0 -1060.0 0.0
99.0 -1000.0 0.0
100.0 -1060.0 0.0
100.0 -1000.0 0.0
101.0 -1060.0 0.0
101.0 -1000.0 0.0
102.0 -1060.0 0.0
102.0 -1000.0 0.0
103.0 -1060.0 0.0
103.0 -1000.0 0.0
104.0 -1060.0 0.0
104.0 -1000.0 0.0
105.0 -1060.0 0.0
105.0 -1000.0 0.0
106.0 -1060.0 0.0
106.0 -1000.0 0.0
107.0 -1060.0 0.0
107.0 -1000.0 0.0
108.0 -1060.0 0.0
108.0 -1000.0 0.0
109.0 -1060.0 0.0
109.0 -1000.0 0.0
110.0 -1060.0 0.0
110.0 -1000.0 0.0
111.0 -1060.0 0.0
111.0 -1000.0 0.0
112.0 -1060.0 0.0
112.0 -1000.0 0.0
113.0 -1060.0 0.0
113.0 -1000.0 0.0
114.0 -1060.0 0.0
114.0 -1000.0 0.0
115.0 -1060.0 0.0
115.0 -1000.0 0.0
116.0 -1060.0 0.0
116.0 -1000.0 0.0
117.0 -1060.0 0.0
117.0 -1000.0 0.0
118.0 -1060.0 0.0
118.0 -1000.0 0.0
119.0 -1060.0 0.0
119.0 -1000.0 0.0
60.0 -1060.0 500.0
120.0 -1060.0 500.0
60.0 -1059.0 500.0
120.0 -1059.0 500.0
60.0 -1058.0 500.0
120.0 -1058.0 500.0
60.0 -1057.0 500.0
120.0 -1057.0 500.0
60.0 -1056.0 500.0
120.0 -1056.0 500.0
60.0 -1055.0 500.0
120.0 -1055.0 500.0
60.0 -1054.0 500.0
120.0 -1054.0 500.0
60.0 -1053.0 500.0
120.0 -1053.0 500.0
60.0 -1052.0 500.0
120.0 -1052.0 500.0
60.0 -1051.0 500.0
120.0 -1051.0 500.0
60.0 -1050.0 500.0
120.0 -1050.0 500.0
60.0 -1049.0 500.0
120.0 -1049.0 500.0
60.0 -1048.0 500.0
120.0 -1048.0 500.0
60.0 -1047.0 500.0
120.0 -1047.0 500.0
60.0 -1046.0 500.0
120.0 -1046.0 500.0
60.0 -1045.0 500.0
120.0 -1045.0 500.0
60.0 -1044.0 500.0
120.0 -1044.0 500.0
60.0 -1043.0 500.0
120.0 -1043.0 500.0
60.0 -1042.0 500.0
120.0 -1042.0 500.0
60.0 -1041.0 500.0
120.0 -1041.0 500.0
60.0 -1040.0 500.0
120.0 -1040.0 500.0
60.0 -1039.0 500.0
120.0 -1039.0 500.0
60.0 -1038.0 500.0
120.0 -1038.0 500.0
60.0 -1037.0 500.0
120.0 -1037.0 500.0
60.0 -1036.0 500.0
120.0 -1036.0 500.0
60.0 -1035.0 500.0
120.0 -1035.0 500.0
60.0 -1034.0 500.0
120.0 -1034.0 500.0
60.0 -1033.0 500.0
120.0 -1033.0 500.0
60.0 -1032.0 500.0
120.0 -1032.0 500.0
60.0 -1031.0 500.0
120.0 -1031.0 500.0
60.0 -1030.0 500.0
120.0 -1030.0 500.0
60.0 -1029.0 500.0
120.0 -1029.0 500.0
60.0 -1028.0 500.0
120.0 -1028.0 500.0
60.0 -1027.0 500.0
120.0 -1027.0 500.0
60.0 -1026.0 500.0
120.0 -1026.0 500.0
60.0 -1025.0 500.0
120.0 -1025.0 500.0
60.0 -1024.0 500.0
120.0 -1024.0 500.0
60.0 -1023.0 500.0
120.0 -1023.0 500.0
60.0 -1022.0 500.0
120.0 -1022.0 500.0
60.0 -1021.0 500.0
120.0 -1021.0 500.0
60.0 -1020.0 500.0
120.0 -1020.0 500.0
60.0 -1019.0 500.0
120.0 -1019.0 500.0
60.0 -1018.0 500.0
120.0 -1018.0 500.0
60.0 -1017.0 500.0
120.0 -1017.0 500.0
60.0 -1016.0 500.0
120.0 -1016.0 500.0
60.0 -1015.0 500.0
120.0 -1015.0 500.0
60.0 -1014.0 500.0
120.0 -1014.0 500.0
60.0 -1013.0 500.0
120.0 -1013.0 500.0
60.0 -1012.0 500.0
120.0 -1012.0 500.0
60.0 -1011.0 500.0
120.0 -1011.0 500.0
60.0 -1010.0 500.0
120.0 -1010.0 500.0
60.0 -1009.0 500.0
120.0 -1009.0 500.0
60.0 -1008.0 500.0
120.0 -1008.0 500.0
60.0 -1007.0 500.0
120.0 -1007.0 500.0
60.0 -1006.0 500.0
120.0 -1006.0 500.0
60.0 -1005.0 500.0
120.0 -1005.0 500.0
60.0 -1004.0 500.0
120.0 -1004.0 500.0
60.0 -1003.0 500.0
120.0 -1003.0 500.0
60.0 -1002.0 500.0
120.0 -1002.0 500.0
60.0 -1001.0 500.0
120.0 -1001.0 500.0
60.0 -1060.0 500.0
60.0 -1000.0 500.0
61.0 -1060.0 500.0
61.0 -1000.0 500.0
62.0 -1060.0 500.0
62.0 -1000.0 500.0
63.0 -1060.0 500.0
63.0 -1000.0 500.0
64.0 -1060.0 500.0
64.0 -1000.0 500.0
65.0 -1060.0 500.0
65.0 -1000.0 500.0
66.0 -1060.0 500.0
66.0 -1000.0 500.0
67.0 -1060.0 500.0
67.0 -1000.0 500.0
68.0 -1060.0 500.0
68.0 -1000.0 500.0
69.0 -1060.0 500.0
69.0 -1000.0 500.0
70.0 -1060.0 500.0
70.0 -1000.0 500.0
71.0 -1060.0 500.0
71.0 -1000.0 500.0
72.0 -1060.0 500.0
72.0 -1000.0 500.0
73.0 -1060.0 500.0
73.0 -1000.0 500.0
74.0 -1060.0 500.0
74.0 -1000.0 500.0
75.0 -1060.0 500.0
75.0 -1000.0 500.0
76.0 -1060.0 500.0
76.0 -1000.0 500.0
77.0 -1060.0 500.0
77.0 -1000.0 500.0
78.0 -1060.0 500.0
78.0 -1000.0 500.0
79.0 -1060.0 500.0
79.0 -1000.0 500.0
80.0 -1060.0 500.0
80.0 -1000.0 500.0
81.0 -1060.0 500.0
81.0 -1000.0 500.0
82.0 -1060.0 500.0
82.0 -1000.0 500.0
83.0 -1060.0 500.0
83.0 -1000.0 500.0
84.0 -1060.0 500.0
84.0 -1000.0 500.0
85.0 -1060.0 500.0
85.0 -1000.0 500.0
86.0 -1060.0 500.0
86.0 -1000.0 500.0
87.0 -1060.0 500.0
87.0 -1000.0 500.0
88.0 -1060.0 500.0
88.0 -1000.0 500.0
89.0 -1060.0 500.0
89.0 -1000.0 500.0
90.0 -1060.0 500.0
90.0 -1000.0 500.0
91.0 -1060.0 500.0
91.0 -1000.0 500.0
92.0 -1060.0 500.0
92.0 -1000.0 500.0
93.0 -1060.0 500.0
93.0 -1000.0 500.0
94.0 -1060.0 500.0
94.0 -1000.0 500.0
95.0 -1060.0 500.0
95.0 -1000.0 500.0
96.0 -1060.0 500.0
96.0 -1000.0 500.0
97.0 -1060.0 500.0
97.0 -1000.0 500.0
98.0 -1060.0 500.0
98.0 -1000.0 500.0
99.0 -1060.0 500.0
99.0 -1000.0 500.0
100.0 -1060.0 500.0
100.0 -1000.0 500.0
101.0 -1060.0 500.0
101.0 -1000.0 500.0
102.0 -1060.0 500.0
102.0 -1000.0 500.0
103.0 -1060.0 500.0
103.0 -1000.0 500.0
104.0 -1060.0 500.0
104.0 -1000.0 500.0
105.0 -1060.0 500.0
105.0 -1000.0 500.0
106.0 -1060.0 500.0
106.0 -1000.0 500.0
107.0 -1060.0 500.0
107.0 -1000.0 500.0
108.0 -1060.0 500.0
108.0 -1000.0 500.0
109.0 -1060.0 500.0
109.0 -1000.0 500.0
110.0 -1060.0 500.0
110.0 -1000.0 500.0
111.0 -1060.0 500.0
111.0 -1000.0 500.0
112.0 -1060.0 500.0
112.0 -1000.0 500.0
113.0 -1060.0 500.0
113.0 -1000.0 500.0
114.0 -1060.0 500.0
114.0 -1000.0 500.0
115.0 -1060.0 500.0
115.0 -1000.0 500.0
116.0 -1060.0 500.0
116.0 -1000.0 500.0
117.0 -1060.0 500.0
117.0 -1000.0 500.0
118.0 -1060.0 500.0
118.0 -1000.0 500.0
119.0 -1060.0 500.0
119.0 -1000.0 500.0
60.0 -1000.0 0.0
120.0 -1000.0 0.0
120.0 -1060.0 0.0
60.0 -1060.0 0.0
60.0 -1000.0 1.0
120.0 -1000.0 1.0
120.0 -1060.0 1.0
60.0 -1060.0 1.0
60.0 -1000.0 2.0
120.0 -1000.0 2.0
120.0 -1060.0 2.0
60.0 -1060.0 2.0
60.0 -1000.0 3.0
120.0 -1000.0 3.0
120.0 -1060.0 3.0
60.0 -1060.0 3.0
60.0 -1000.0 4.0
120.0 -1000.0 4.0
120.0 -1060.0 4.0
60.0 -1060.0 4.0
60.0 -1000.0 5.0
120.0 -1000.0 5.0
120.0 -1060.0 5.0
60.0 -1060.0 5.0
60.0 -1000.0 6.0
120.0 -1000.0 6.0
120.0 -1060.0 6.0
60.0 -1060.0 6.0
60.0 -1000.0 7.0
120.0 -1000.0 7.0
120.0 -1060.0 7.0
60.0 -1060.0 7.0
60.0 -1000.0 8.0
120.0 -1000.0 8.0
120.0 -1060.0 8.0
60.0 -1060.0 8.0
60.0 -1000.0 9.0
120.0 -1000.0 9.0
120.0 -1060.0 9.0
60.0 -1060.0 9.0
60.0 -1000.0 10.0
120.0 -1000.0 10.0
120.0 -1060.0 10.0
60.0 -1060.0 10.0
60.0 -1000.0 11.0
120.0 -1000.0 11.0
120.0 -1060.0 11.0
60.0 -1060.0 11.0
60.0 -1000.0 12.0
120.0 -1000.0 12.0
120.0 -1060.0 12.0
60.0 -1060.0 12.0
60.0 -1000.0 13.0
120.0 -1000.0 13.0
120.0 -1060.0 13.0
60.0 -1060.0 13.0
60.0 -1000.0 14.0
120.0 -1000.0 14.0
120.0 -1060.0 14.0
60.0 -1060.0 14.0
60.0 -1000.0 15.0
120.0 -1000.0 15.0
120.0 -1060.0 15.0
60.0 -1060.0 15.0
60.0 -1000.0 16.0
120.0 -1000.0 16.0
120.0 -1060.0 16.0
60.0 -1060.0 16.0
60.0 -1000.0 17.0
120.0 -1000.0 17.0
120.0 -1060.0 17.0
60.0 -1060.0 17.0
60.0 -1000.0 18.0
120.0 -1000.0 18.0
120.0 -1060.0 18.0
60.0 -1060.0 18.0
60.0 -1000.0 19.0
120.0 -1000.0 19.0
120.0 -1060.0 19.0
60.0 -1060.0 19.0
60.0 -1000.0 20.0
120.0 -1000.0 20.0
120.0 -1060.0 20.0
60.0 -1060.0 20.0
60.0 -1000.0 21.0
120.0 -1000.0 21.0
120.0 -1060.0 21.0
60.0 -1060.0 21.0
60.0 -1000.0 22.0
120.0 -1000.0 22.0
120.0 -1060.0 22.0
60.0 -1060.0 22.0
60.0 -1000.0 23.0
120.0 -1000.0 23.0
120.0 -1060.0 23.0
60.0 -1060.0 23.0
60.0 -1000.0 24.0
120.0 -1000.0 24.0
120.0 -1060.0 24.0
60.0 -1060.0 24.0
60.0 -1000.0 25.0
120.0 -1000.0 25.0
120.0 -1060.0 25.0
60.0 -1060.0 25.0
60.0 -1000.0 26.0
120.0 -1000.0 26.0
120.0 -1060.0 26.0
60.0 -1060.0 26.0
60.0 -1000.0 27.0
120.0 -1000.0 27.0
120.0 -1060.0 27.0
60.0 -1060.0 27.0
60.0 -1000.0 28.0
120.0 -1000.0 28.0
120.0 -1060.0 28.0
60.0 -1060.0 28.0
60.0 -1000.0 29.0
120.0 -1000.0 29.0
120.0 -1060.0 29.0
60.0 -1060.0 29.0
60.0 -1000.0 30.0
120.0 -1000.0 30.0
120.0 -1060.0 30.0
60.0 -1060.0 30.0
60.0 -1000.0 31.0
120.0 -1000.0 31.0
120.0 -1060.0 31.0
60.0 -1060.0 31.0
60.0 -1000.0 32.0
120.0 -1000.0 32.0
120.0 -1060.0 32.0
60.0 -1060.0 32.0
60.0 -1000.0 33.0
120.0 -1000.0 33.0
120.0 -1060.0 33.0
60.0 -1060.0 33.0
60.0 -1000.0 34.0
120.0 -1000.0 34.0
120.0 -1060.0 34.0
60.0 -1060.0 34.0
60.0 -1000.0 35.0
120.0 -1000.0 35.0
120.0 -1060.0 35.0
60.0 -1060.0 35.0
60.0 -1000.0 36.0
120.0 -1000.0 36.0
120.0 -1060.0 36.0
60.0 -1060.0 36.0
60.0 -1000.0 37.0
120.0 -1000.0 37.0
120.0 -1060.0 37.0
60.0 -1060.0 37.0
60.0 -1000.0 38.0
120.0 -1000.0 38.0
120.0 -1060.0 38.0
60.0 -1060.0 38.0
60.0 -1000.0 39.0
120.0 -1000.0 39.0
120.0 -1060.0 39.0
60.0 -1060.0 39.0
60.0 -1000.0 40.0
120.0 -1000.0 40.0
120.0 -1060.0 40.0
60.0 -1060.0 40.0
60.0 -1000.0 41.0
120.0 -1000.0 41.0
120.0 -1060.0 41.0
60.0 -1060.0 41.0
60.0 -1000.0 42.0
120.0 -1000.0 42.0
120.0 -1060.0 42.0
60.0 -1060.0 42.0
60.0 -1000.0 43.0
120.0 -1000.0 43.0
120.0 -1060.0 43.0
60.0 -1060.0 43.0
60.0 -1000.0 44.0
120.0 -1000.0 44.0
120.0 -1060.0 44.0
60.0 -1060.0 44.0
60.0 -1000.0 45.0
120.0 -1000.0 45.0
120.0 -1060.0 45.0
60.0 -1060.0 45.0
60.0 -1000.0 46.0
120.0 -1000.0 46.0
120.0 -1060.0 46.0
60.0 -1060.0 46.0
60.0 -1000.0 47.0
120.0 -1000.0 47.0
120.0 -1060.0 47.0
60.0 -1060.0 47.0
60.0 -1000.0 48.0
120.0 -1000.0 48.0
120.0 -1060.0 48.0
60.0 -1060.0 48.0
60.0 -1000.0 49.0
120.0 -1000.0 49.0
120.0 -1060.0 49.0
60.0 -1060.0 49.0
60.0 -1000.0 50.0
120.0 -1000.0 50.0
120.0 -1060.0 50.0
60.0 -1060.0 50.0
60.0 -1000.0 51.0
120.0 -1000.0 51.0
120.0 -1060.0 51.0
60.0 -1060.0 51.0
60.0 -1000.0 52.0
120.0 -1000.0 52.0
120.0 -1060.0 52.0
60.0 -1060.0 52.0
60.0 -1000.0 53.0
120.0 -1000.0 53.0
120.0 -1060.0 53.0
60.0 -1060.0 53.0
60.0 -1000.0 54.0
120.0 -1000.0 54.0
120.0 -1060.0 54.0
60.0 -1060.0 54.0
60.0 -1000.0 55.0
120.0 -1000.0 55.0
120.0 -1060.0 55.0
60.0 -1060.0 55.0
60.0 -1000.0 56.0
120.0 -1000.0 56.0
120.0 -1060.0 56.0
60.0 -1060.0 56.0
60.0 -1000.0 57.0
120.0 -1000.0 57.0
120.0 -1060.0 57.0
60.0 -1060.0 57.0
60.0 -1000.0 58.0
120.0 -1000.0 58.0
120.0 -1060.0 58.0
60.0 -1060.0 58.0
60.0 -1000.0 59.0
120.0 -1000.0 59.0
120.0 -1060.0 59.0
60.0 -1060.0 59.0
60.0 -1000.0 60.0
120.0 -1000.0 60.0
120.0 -1060.0 60.0
60.0 -1060.0 60.0
60.0 -1000.0 61.0
120.0 -1000.0 61.0
120.0 -1060.0 61.0
60.0 -1060.0 61.0
60.0 -1000.0 62.0
120.0 -1000.0 62.0
120.0 -1060.0 62.0
60.0 -1060.0 62.0
60.0 -1000.0 63.0
120.0 -1000.0 63.0
120.0 -1060.0 63.0
60.0 -1060.0 63.0
60.0 -1000.0 64.0
120.0 -1000.0 64.0
120.0 -1060.0 64.0
60.0 -1060.0 64.0
60.0 -1000.0 65.0
120.0 -1000.0 65.0
120.0 -1060.0 65.0
60.0 -1060.0 65.0
60.0 -1000.0 66.0
120.0 -1000.0 66.0
120.0 -1060.0 66.0
60.0 -1060.0 66.0
60.0 -1000.0 67.0
120.0 -1000.0 67.0
120.0 -1060.0 67.0
60.0 -1060.0 67.0
60.0 -1000.0 68.0
120.0 -1000.0 68.0
120.0 -1060.0 68.0
60.0 -1060.0 68.0
60.0 -1000.0 69.0
120.0 -1000.0 69.0
120.0 -1060.0 69.0
60.0 -1060.0 69.0
60.0 -1000.0 70.0
120.0 -1000.0 70.0
120.0 -1060.0 70.0
60.0 -1060.0 70.0
60.0 -1000.0 71.0
120.0 -1000.0 71.0
120.0 -1060.0 71.0
60.0 -1060.0 71.0
60.0 -1000.0 72.0
120.0 -1000.0 72.0
120.0 -1060.0 72.0
60.0 -1060.0 72.0
60.0 -1000.0 73.0
120.0 -1000.0 73.0
120.0 -1060.0 73.0
60.0 -1060.0 73.0
60.0 -1000.0 74.0
120.0 -1000.0 74.0
120.0 -1060.0 74.0
60.0 -1060.0 74.0
60.0 -1000.0 75.0
120.0 -1000.0 75.0
120.0 -1060.0 75.0
60.0 -1060.0 75.0
60.0 -1000.0 76.0
120.0 -1000.0 76.0
120.0 -1060.0 76.0
60.0 -1060.0 76.0
60.0 -1000.0 77.0
120.0 -1000.0 77.0
120.0 -1060.0 77.0
60.0 -1060.0 77.0
60.0 -1000.0 78.0
120.0 -1000.0 78.0
120.0 -1060.0 78.0
60.0 -1060.0 78.0
60.0 -1000.0 79.0
120.0 -1000.0 79.0
120.0 -1060.0 79.0
60.0 -1060.0 79.0
60.0 -1000.0 80.0
120.0 -1000.0 80.0
120.0 -1060.0 80.0
60.0 -1060.0 80.0
60.0 -1000.0 81.0
120.0 -1000.0 81.0
120.0 -1060.0 81.0
60.0 -1060.0 81.0
60.0 -1000.0 82.0
120.0 -1000.0 82.0
120.0 -1060.0 82.0
60.0 -1060.0 82.0
60.0 -1000.0 83.0
120.0 -1000.0 83.0
120.0 -1060.0 83.0
60.0 -1060.0 83.0
60.0 -1000.0 84.0
120.0 -1000.0 84.0
120.0 -1060.0 84.0
60.0 -1060.0 84.0
60.0 -1000.0 85.0
120.0 -1000.0 85.0
120.0 -1060.0 85.0
60.0 -1060.0 85.0
60.0 -1000.0 86.0
120.0 -1000.0 86.0
120.0 -1060.0 86.0
60.0 -1060.0 86.0
60.0 -1000.0 87.0
120.0 -1000.0 87.0
120.0 -1060.0 87.0
60.0 -1060.0 87.0
60.0 -1000.0 88.0
120.0 -1000.0 88.0
120.0 -1060.0 88.0
60.0 -1060.0 88.0
60.0 -1000.0 89.0
120.0 -1000.0 89.0
120.0 -1060.0 89.0
60.0 -1060.0 89.0
60.0 -1000.0 90.0
120.0 -1000.0 90.0
120.0 -1060.0 90.0
60.0 -1060.0 90.0
60.0 -1000.0 91.0
120.0 -1000.0 91.0
120.0 -1060.0 91.0
60.0 -1060.0 91.0
60.0 -1000.0 92.0
120.0 -1000.0 92.0
120.0 -1060.0 92.0
60.0 -1060.0 92.0
60.0 -1000.0 93.0
120.0 -1000.0 93.0
120.0 -1060.0 93.0
60.0 -1060.0 93.0
60.0 -1000.0 94.0
120.0 -1000.0 94.0
120.0 -1060.0 94.0
60.0 -1060.0 94.0
60.0 -1000.0 95.0
120.0 -1000.0 95.0
120.0 -1060.0 95.0
60.0 -1060.0 95.0
60.0 -1000.0 96.0
120.0 -1000.0 96.0
120.0 -1060.0 96.0
60.0 -1060.0 96.0
60.0 -1000.0 97.0
120.0 -1000.0 97.0
120.0 -1060.0 97.0
60.0 -1060.0 97.0
60.0 -1000.0 98.0
120.0 -1000.0 98.0
120.0 -1060.0 98.0
60.0 -1060.0 98.0
60.0 -1000.0 99.0
120.0 -1000.0 99.0
120.0 -1060.0 99.0
60.0 -1060.0 99.0
60.0 -1000.0 100.0
120.0 -1000.0 100.0
120.0 -1060.0 100.0
60.0 -1060.0 100.0
60.0 -1000.0 101.0
120.0 -1000.0 101.0
120.0 -1060.0 101.0
60.0 -1060.0 101.0
60.0 -1000.0 102.0
120.0 -1000.0 102.0
120.0 -1060.0 102.0
60.0 -1060.0 102.0
60.0 -1000.0 103.0
120.0 -1000.0 103.0
120.0 -1060.0 103.0
60.0 -1060.0 103.0
60.0 -1000.0 104.0
120.0 -1000.0 104.0
120.0 -1060.0 104.0
60.0 -1060.0 104.0
60.0 -1000.0 105.0
120.0 -1000.0 105.0
120.0 -1060.0 105.0
60.0 -1060.0 105.0
60.0 -1000.0 106.0
120.0 -1000.0 106.0
120.0 -1060.0 106.0
60.0 -1060.0 106.0
60.0 -1000.0 107.0
120.0 -1000.0 107.0
120.0 -1060.0 107.0
60.0 -1060.0 107.0
60.0 -1000.0 108.0
120.0 -1000.0 108.0
120.0 -1060.0 108.0
60.0 -1060.0 108.0
60.0 -1000.0 109.0
120.0 -1000.0 109.0
120.0 -1060.0 109.0
60.0 -1060.0 109.0
60.0 -1000.0 110.0
120.0 -1000.0 110.0
120.0 -1060.0 110.0
60.0 -1060.0 110.0
60.0 -1000.0 111.0
120.0 -1000.0 111.0
120.0 -1060.0 111.0
60.0 -1060.0 111.0
60.0 -1000.0 112.0
120.0 -1000.0 112.0
120.0 -1060.0 112.0
60.0 -1060.0 112.0
60.0 -1000.0 113.0
120.0 -1000.0 113.0
120.0 -1060.0 113.0
60.0 -1060.0 113.0
60.0 -1000.0 114.0
120.0 -1000.0 114.0
120.0 -1060.0 114.0
60.0 -1060.0 114.0
60.0 -1000.0 115.0
120.0 -1000.0 115.0
120.0 -1060.0 115.0
60.0 -1060.0 115.0
60.0 -1000.0 116.0
120.0 -1000.0 116.0
120.0 -1060.0 116.0
60.0 -1060.0 116.0
60.0 -1000.0 117.0
120.0 -1000.0 117.0
120.0 -1060.0 117.0
60.0 -1060.0 117.0
60.0 -1000.0 118.0
120.0 -1000.0 118.0
120.0 -1060.0 118.0
60.0 -1060.0 118.0
60.0 -1000.0 119.0
120.0 -1000.0 119.0
120.0 -1060.0 119.0
60.0 -1060.0 119.0
60.0 -1000.0 120.0
120.0 -1000.0 120.0
120.0 -1060.0 120.0
60.0 -1060.0 120.0
60.0 -1000.0 121.0
120.0 -1000.0 121.0
120.0 -1060.0 121.0
60.0 -1060.0 121.0
60.0 -1000.0 122.0
120.0 -1000.0 122.0
120.0 -1060.0 122.0
60.0 -1060.0 122.0
60.0 -1000.0 123.0
120.0 -1000.0 123.0
120.0 -1060.0 123.0
60.0 -1060.0 123.0
60.0 -1000.0 124.0
120.0 -1000.0 124.0
120.0 -1060.0 124.0
60.0 -1060.0 124.0
60.0 -1000.0 125.0
120.0 -1000.0 125.0
120.0 -1060.0 125.0
60.0 -1060.0 125.0
60.0 -1000.0 126.0
120.0 -1000.0 126.0
120.0 -1060.0 126.0
60.0 -1060.0 126.0
60.0 -1000.0 127.0
120.0 -1000.0 127.0
120.0 -1060.0 127.0
60.0 -1060.0 127.0
60.0 -1000.0 128.0
120.0 -1000.0 128.0
120.0 -1060.0 128.0
60.0 -1060.0 128.0
60.0 -1000.0 129.0
120.0 -1000.0 129.0
120.0 -1060.0 129.0
60.0 -1060.0 129.0
60.0 -1000.0 130.0
120.0 -1000.0 130.0
120.0 -1060.0 130.0
60.0 -1060.0 130.0
60.0 -1000.0 131.0
120.0 -1000.0 131.0
120.0 -1060.0 131.0
60.0 -1060.0 131.0
60.0 -1000.0 132.0
120.0 -1000.0 132.0
120.0 -1060.0 132.0
60.0 -1060.0 132.0
60.0 -1000.0 133.0
120.0 -1000.0 133.0
120.0 -1060.0 133.0
60.0 -1060.0 133.0
60.0 -1000.0 134.0
120.0 -1000.0 134.0
120.0 -1060.0 134.0
60.0 -1060.0 134.0
60.0 -1000.0 135.0
120.0 -1000.0 135.0
120.0 -1060.0 135.0
60.0 -1060.0 135.0
60.0 -1000.0 136.0
120.0 -1000.0 136.0
120.0 -1060.0 136.0
60.0 -1060.0 136.0
60.0 -1000.0 137.0
120.0 -1000.0 137.0
120.0 -1060.0 137.0
60.0 -1060.0 137.0
60.0 -1000.0 138.0
120.0 -1000.0 138.0
120.0 -1060.0 138.0
60.0 -1060.0 138.0
60.0 -1000.0 139.0
120.0 -1000.0 139.0
120.0 -1060.0 139.0
60.0 -1060.0 139.0
60.0 -1000.0 140.0
120.0 -1000.0 140.0
120.0 -1060.0 140.0
60.0 -1060.0 140.0
60.0 -1000.0 141.0
120.0 -1000.0 141.0
120.0 -1060.0 141.0
60.0 -1060.0 141.0
60.0 -1000.0 142.0
120.0 -1000.0 142.0
120.0 -1060.0 142.0
60.0 -1060.0 142.0
60.0 -1000.0 143.0
120.0 -1000.0 143.0
120.0 -1060.0 143.0
60.0 -1060.0 143.0
60.0 -1000.0 144.0
120.0 -1000.0 144.0
120.0 -1060.0 144.0
60.0 -1060.0 144.0
60.0 -1000.0 145.0
120.0 -1000.0 145.0
120.0 -1060.0 145.0
60.0 -1060.0 145.0
60.0 -1000.0 146.0
120.0 -1000.0 146.0
120.0 -1060.0 146.0
60.0 -1060.0 146.0
60.0 -1000.0 147.0
120.0 -1000.0 147.0
120.0 -1060.0 147.0
60.0 -1060.0 147.0
60.0 -1000.0 148.0
120.0 -1000.0 148.0
120.0 -1060.0 148.0
60.0 -1060.0 148.0
60.0 -1000.0 149.0
120.0 -1000.0 149.0
120.0 -1060.0 149.0
60.0 -1060.0 149.0
60.0 -1000.0 150.0
120.0 -1000.0 150.0
120.0 -1060.0 150.0
60.0 -1060.0 150.0
60.0 -1000.0 151.0
120.0 -1000.0 151.0
120.0 -1060.0 151.0
60.0 -1060.0 151.0
60.0 -1000.0 152.0
120.0 -1000.0 152.0
120.0 -1060.0 152.0
60.0 -1060.0 152.0
60.0 -1000.0 153.0
120.0 -1000.0 153.0
120.0 -1060.0 153.0
60.0 -1060.0 153.0
60.0 -1000.0 154.0
120.0 -1000.0 154.0
120.0 -1060.0 154.0
60.0 -1060.0 154.0
60.0 -1000.0 155.0
120.0 -1000.0 155.0
120.0 -1060.0 155.0
60.0 -1060.0 155.0
60.0 -1000.0 156.0
120.0 -1000.0 156.0
120.0 -1060.0 156.0
60.0 -1060.0 156.0
60.0 -1000.0 157.0
120.0 -1000.0 157.0
120.0 -1060.0 157.0
60.0 -1060.0 157.0
60.0 -1000.0 158.0
120.0 -1000.0 158.0
120.0 -1060.0 158.0
60.0 -1060.0 158.0
60.0 -1000.0 159.0
120.0 -1000.0 159.0
120.0 -1060.0 159.0
60.0 -1060.0 159.0
60.0 -1000.0 160.0
120.0 -1000.0 160.0
120.0 -1060.0 160.0
60.0 -1060.0 160.0
60.0 -1000.0 161.0
120.0 -1000.0 161.0
120.0 -1060.0 161.0
60.0 -1060.0 161.0
60.0 -1000.0 162.0
120.0 -1000.0 162.0
120.0 -1060.0 162.0
60.0 -1060.0 162.0
60.0 -1000.0 163.0
120.0 -1000.0 163.0
120.0 -1060.0 163.0
60.0 -1060.0 163.0
60.0 -1000.0 164.0
120.0 -1000.0 164.0
120.0 -1060.0 164.0
60.0 -1060.0 164.0
60.0 -1000.0 165.0
120.0 -1000.0 165.0
120.0 -1060.0 165.0
60.0 -1060.0 165.0
60.0 -1000.0 166.0
120.0 -1000.0 166.0
120.0 -1060.0 166.0
60.0 -1060.0 166.0
60.0 -1000.0 167.0
120.0 -1000.0 167.0
120.0 -1060.0 167.0
60.0 -1060.0 167.0
60.0 -1000.0 168.0
120.0 -1000.0 168.0
120.0 -1060.0 168.0
60.0 -1060.0 168.0
60.0 -1000.0 169.0
120.0 -1000.0 169.0
120.0 -1060.0 169.0
60.0 -1060.0 169.0
60.0 -1000.0 170.0
120.0 -1000.0 170.0
120.0 -1060.0 170.0
60.0 -1060.0 170.0
60.0 -1000.0 171.0
120.0 -1000.0 171.0
120.0 -1060.0 171.0
60.0 -1060.0 171.0
60.0 -1000.0 172.0
120.0 -1000.0 172.0
120.0 -1060.0 172.0
60.0 -1060.0 172.0
60.0 -1000.0 173.0
120.0 -1000.0 173.0
120.0 -1060.0 173.0
60.0 -1060.0 173.0
60.0 -1000.0 174.0
120.0 -1000.0 174.0
120.0 -1060.0 174.0
60.0 -1060.0 174.0
60.0 -1000.0 175.0
120.0 -1000.0 175.0
120.0 -1060.0 175.0
60.0 -1060.0 175.0
60.0 -1000.0 176.0
120.0 -1000.0 176.0
120.0 -1060.0 176.0
60.0 -1060.0 176.0
60.0 -1000.0 177.0
120.0 -1000.0 177.0
120.0 -1060.0 177.0
60.0 -1060.0 177.0
60.0 -1000.0 178.0
120.0 -1000.0 178.0
120.0 -1060.0 178.0
60.0 -1060.0 178.0
60.0 -1000.0 179.0
120.0 -1000.0 179.0
120.0 -1060.0 179.0
60.0 -1060.0 179.0
60.0 -1000.0 180.0
120.0 -1000.0 180.0
120.0 -1060.0 180.0
60.0 -1060.0 180.0
60.0 -1000.0 181.0
120.0 -1000.0 181.0
120.0 -1060.0 181.0
60.0 -1060.0 181.0
60.0 -1000.0 182.0
120.0 -1000.0 182.0
120.0 -1060.0 182.0
60.0 -1060.0 182.0
60.0 -1000.0 183.0
120.0 -1000.0 183.0
120.0 -1060.0 183.0
60.0 -1060.0 183.0
60.0 -1000.0 184.0
120.0 -1000.0 184.0
120.0 -1060.0 184.0
60.0 -1060.0 184.0
60.0 -1000.0 185.0
120.0 -1000.0 185.0
120.0 -1060.0 185.0
60.0 -1060.0 185.0
60.0 -1000.0 186.0
120.0 -1000.0 186.0
120.0 -1060.0 186.0
60.0 -1060.0 186.0
60.0 -1000.0 187.0
120.0 -1000.0 187.0
120.0 -1060.0 187.0
60.0 -1060.0 187.0
60.0 -1000.0 188.0
120.0 -1000.0 188.0
120.0 -1060.0 188.0
60.0 -1060.0 188.0
60.0 -1000.0 189.0
120.0 -1000.0 189.0
120.0 -1060.0 189.0
60.0 -1060.0 189.0
60.0 -1000.0 190.0
120.0 -1000.0 190.0
120.0 -1060.0 190.0
60.0 -1060.0 190.0
60.0 -1000.0 191.0
120.0 -1000.0 191.0
120.0 -1060.0 191.0
60.0 -1060.0 191.0
60.0 -1000.0 192.0
120.0 -1000.0 192.0
120.0 -1060.0 192.0
60.0 -1060.0 192.0
60.0 -1000.0 193.0
120.0 -1000.0 193.0
120.0 -1060.0 193.0
60.0 -1060.0 193.0
60.0 -1000.0 194.0
120.0 -1000.0 194.0
120.0 -1060.0 194.0
60.0 -1060.0 194.0
60.0 -1000.0 195.0
120.0 -1000.0 195.0
120.0 -1060.0 195.0
60.0 -1060.0 195.0
60.0 -1000.0 196.0
120.0 -1000.0 196.0
120.0 -1060.0 196.0
60.0 -1060.0 196.0
60.0 -1000.0 197.0
120.0 -1000.0 197.0
120.0 -1060.0 197.0
60.0 -1060.0 197.0
60.0 -1000.0 198.0
120.0 -1000.0 198.0
120.0 -1060.0 198.0
60.0 -1060.0 198.0
60.0 -1000.0 199.0
120.0 -1000.0 199.0
120.0 -1060.0 199.0
60.0 -1060.0 199.0
60.0 -1000.0 200.0
120.0 -1000.0 200.0
120.0 -1060.0 200.0
60.0 -1060.0 200.0
60.0 -1000.0 201.0
120.0 -1000.0 201.0
120.0 -1060.0 201.0
60.0 -1060.0 201.0
60.0 -1000.0 202.0
120.0 -1000.0 202.0
120.0 -1060.0 202.0
60.0 -1060.0 202.0
60.0 -1000.0 203.0
120.0 -1000.0 203.0
120.0 -1060.0 203.0
60.0 -1060.0 203.0
60.0 -1000.0 204.0
120.0 -1000.0 204.0
120.0 -1060.0 204.0
60.0 -1060.0 204.0
60.0 -1000.0 205.0
120.0 -1000.0 205.0
120.0 -1060.0 205.0
60.0 -1060.0 205.0
60.0 -1000.0 206.0
120.0 -1000.0 206.0
120.0 -1060.0 206.0
60.0 -1060.0 206.0
60.0 -1000.0 207.0
120.0 -1000.0 207.0
120.0 -1060.0 207.0
60.0 -1060.0 207.0
60.0 -1000.0 208.0
120.0 -1000.0 208.0
120.0 -1060.0 208.0
60.0 -1060.0 208.0
60.0 -1000.0 209.0
120.0 -1000.0 209.0
120.0 -1060.0 209.0
60.0 -1060.0 209.0
60.0 -1000.0 210.0
120.0 -1000.0 210.0
120.0 -1060.0 210.0
60.0 -1060.0 210.0
60.0 -1000.0 211.0
120.0 -1000.0 211.0
120.0 -1060.0 211.0
60.0 -1060.0 211.0
60.0 -1000.0 212.0
120.0 -1000.0 212.0
120.0 -1060.0 212.0
60.0 -1060.0 212.0
60.0 -1000.0 213.0
120.0 -1000.0 213.0
120.0 -1060.0 213.0
60.0 -1060.0 213.0
60.0 -1000.0 214.0
120.0 -1000.0 214.0
120.0 -1060.0 214.0
60.0 -1060.0 214.0
60.0 -1000.0 215.0
120.0 -1000.0 215.0
120.0 -1060.0 215.0
60.0 -1060.0 215.0
60.0 -1000.0 216.0
120.0 -1000.0 216.0
120.0 -1060.0 216.0
60.0 -1060.0 216.0
60.0 -1000.0 217.0
120.0 -1000.0 217.0
120.0 -1060.0 217.0
60.0 -1060.0 217.0
60.0 -1000.0 218.0
120.0 -1000.0 218.0
120.0 -1060.0 218.0
60.0 -1060.0 218.0
60.0 -1000.0 219.0
120.0 -1000.0 219.0
120.0 -1060.0 219.0
60.0 -1060.0 219.0
60.0 -1000.0 220.0
120.0 -1000.0 220.0
120.0 -1060.0 220.0
60.0 -1060.0 220.0
60.0 -1000.0 221.0
120.0 -1000.0 221.0
120.0 -1060.0 221.0
60.0 -1060.0 221.0
60.0 -1000.0 222.0
120.0 -1000.0 222.0
120.0 -1060.0 222.0
60.0 -1060.0 222.0
60.0 -1000.0 223.0
120.0 -1000.0 223.0
120.0 -1060.0 223.0
60.0 -1060.0 223.0
60.0 -1000.0 224.0
120.0 -1000.0 224.0
120.0 -1060.0 224.0
60.0 -1060.0 224.0
60.0 -1000.0 225.0
120.0 -1000.0 225.0
120.0 -1060.0 225.0
60.0 -1060.0 225.0
60.0 -1000.0 226.0
120.0 -1000.0 226.0
120.0 -1060.0 226.0
60.0 -1060.0 226.0
60.0 -1000.0 227.0
120.0 -1000.0 227.0
120.0 -1060.0 227.0
60.0 -1060.0 227.0
60.0 -1000.0 228.0
120.0 -1000.0 228.0
120.0 -1060.0 228.0
60.0 -1060.0 228.0
60.0 -1000.0 229.0
120.0 -1000.0 229.0
120.0 -1060.0 229.0
60.0 -1060.0 229.0
60.0 -1000.0 230.0
120.0 -1000.0 230.0
120.0 -1060.0 230.0
60.0 -1060.0 230.0
60.0 -1000.0 231.0
120.0 -1000.0 231.0
120.0 -1060.0 231.0
60.0 -1060.0 231.0
60.0 -1000.0 232.0
120.0 -1000.0 232.0
120.0 -1060.0 232.0
60.0 -1060.0 232.0
60.0 -1000.0 233.0
120.0 -1000.0 233.0
120.0 -1060.0 233.0
60.0 -1060.0 233.0
60.0 -1000.0 234.0
120.0 -1000.0 234.0
120.0 -1060.0 234.0
60.0 -1060.0 234.0
60.0 -1000.0 235.0
120.0 -1000.0 235.0
120.0 -1060.0 235.0
60.0 -1060.0 235.0
60.0 -1000.0 236.0
120.0 -1000.0 236.0
120.0 -1060.0 236.0
60.0 -1060.0 236.0
60.0 -1000.0 237.0
120.0 -1000.0 237.0
120.0 -1060.0 237.0
60.0 -1060.0 237.0
60.0 -1000.0 238.0
120.0 -1000.0 238.0
120.0 -1060.0 238.0
60.0 -1060.0 238.0
60.0 -1000.0 239.0
120.0 -1000.0 239.0
120.0 -1060.0 239.0
60.0 -1060.0 239.0
60.0 -1000.0 240.0
120.0 -1000.0 240.0
120.0 -1060.0 240.0
60.0 -1060.0 240.0
60.0 -1000.0 241.0
120.0 -1000.0 241.0
120.0 -1060.0 241.0
60.0 -1060.0 241.0
60.0 -1000.0 242.0
120.0 -1000.0 242.0
120.0 -1060.0 242.0
60.0 -1060.0 242.0
60.0 -1000.0 243.0
120.0 -1000.0 243.0
120.0 -1060.0 243.0
60.0 -1060.0 243.0
60.0 -1000.0 244.0
120.0 -1000.0 244.0
120.0 -1060.0 244.0
60.0 -1060.0 244.0
60.0 -1000.0 245.0
120.0 -1000.0 245.0
120.0 -1060.0 245.0
60.0 -1060.0 245.0
60.0 -1000.0 246.0
120.0 -1000.0 246.0
120.0 -1060.0 246.0
60.0 -1060.0 246.0
60.0 -1000.0 247.0
120.0 -1000.0 247.0
120.0 -1060.0 247.0
60.0 -1060.0 247.0
60.0 -1000.0 248.0
120.0 -1000.0 248.0
120.0 -1060.0 248.0
60.0 -1060.0 248.0
60.0 -1000.0 249.0
120.0 -1000.0 249.0
120.0 -1060.0 249.0
60.0 -1060.0 249.0
60.0 -1000.0 250.0
120.0 -1000.0 250.0
120.0 -1060.0 250.0
60.0 -1060.0 250.0
60.0 -1000.0 251.0
120.0 -1000.0 251.0
120.0 -1060.0 251.0
60.0 -1060.0 251.0
60.0 -1000.0 252.0
120.0 -1000.0 252.0
120.0 -1060.0 252.0
60.0 -1060.0 252.0
60.0 -1000.0 253.0
120.0 -1000.0 253.0
120.0 -1060.0 253.0
60.0 -1060.0 253.0
60.0 -1000.0 254.0
120.0 -1000.0 254.0
120.0 -1060.0 254.0
60.0 -1060.0 254.0
60.0 -1000.0 255.0
120.0 -1000.0 255.0
120.0 -1060.0 255.0
60.0 -1060.0 255.0
60.0 -1000.0 256.0
120.0 -1000.0 256.0
120.0 -1060.0 256.0
60.0 -1060.0 256.0
60.0 -1000.0 257.0
120.0 -1000.0 257.0
120.0 -1060.0 257.0
60.0 -1060.0 257.0
60.0 -1000.0 258.0
120.0 -1000.0 258.0
120.0 -1060.0 258.0
60.0 -1060.0 258.0
60.0 -1000.0 259.0
120.0 -1000.0 259.0
120.0 -1060.0 259.0
60.0 -1060.0 259.0
60.0 -1000.0 260.0
120.0 -1000.0 260.0
120.0 -1060.0 260.0
60.0 -1060.0 260.0
60.0 -1000.0 261.0
120.0 -1000.0 261.0
120.0 -1060.0 261.0
60.0 -1060.0 261.0
60.0 -1000.0 262.0
120.0 -1000.0 262.0
120.0 -1060.0 262.0
60.0 -1060.0 262.0
60.0 -1000.0 263.0
120.0 -1000.0 263.0
120.0 -1060.0 263.0
60.0 -1060.0 263.0
60.0 -1000.0 264.0
120.0 -1000.0 264.0
120.0 -1060.0 264.0
60.0 -1060.0 264.0
60.0 -1000.0 265.0
120.0 -1000.0 265.0
120.0 -1060.0 265.0
60.0 -1060.0 265.0
60.0 -1000.0 266.0
120.0 -1000.0 266.0
120.0 -1060.0 266.0
60.0 -1060.0 266.0
60.0 -1000.0 267.0
120.0 -1000.0 267.0
120.0 -1060.0 267.0
60.0 -1060.0 267.0
60.0 -1000.0 268.0
120.0 -1000.0 268.0
120.0 -1060.0 268.0
60.0 -1060.0 268.0
60.0 -1000.0 269.0
120.0 -1000.0 269.0
120.0 -1060.0 269.0
60.0 -1060.0 269.0
60.0 -1000.0 270.0
120.0 -1000.0 270.0
120.0 -1060.0 270.0
60.0 -1060.0 270.0
60.0 -1000.0 271.0
120.0 -1000.0 271.0
120.0 -1060.0 271.0
60.0 -1060.0 271.0
60.0 -1000.0 272.0
120.0 -1000.0 272.0
120.0 -1060.0 272.0
60.0 -1060.0 272.0
60.0 -1000.0 273.0
120.0 -1000.0 273.0
120.0 -1060.0 273.0
60.0 -1060.0 273.0
60.0 -1000.0 274.0
120.0 -1000.0 274.0
120.0 -1060.0 274.0
60.0 -1060.0 274.0
60.0 -1000.0 275.0
120.0 -1000.0 275.0
120.0 -1060.0 275.0
60.0 -1060.0 275.0
60.0 -1000.0 276.0
120.0 -1000.0 276.0
120.0 -1060.0 276.0
60.0 -1060.0 276.0
60.0 -1000.0 277.0
120.0 -1000.0 277.0
120.0 -1060.0 277.0
60.0 -1060.0 277.0
60.0 -1000.0 278.0
120.0 -1000.0 278.0
120.0 -1060.0 278.0
60.0 -1060.0 278.0
60.0 -1000.0 279.0
120.0 -1000.0 279.0
120.0 -1060.0 279.0
60.0 -1060.0 279.0
60.0 -1000.0 280.0
120.0 -1000.0 280.0
120.0 -1060.0 280.0
60.0 -1060.0 280.0
60.0 -1000.0 281.0
120.0 -1000.0 281.0
120.0 -1060.0 281.0
60.0 -1060.0 281.0
60.0 -1000.0 282.0
120.0 -1000.0 282.0
120.0 -1060.0 282.0
60.0 -1060.0 282.0
60.0 -1000.0 283.0
120.0 -1000.0 283.0
120.0 -1060.0 283.0
60.0 -1060.0 283.0
60.0 -1000.0 284.0
120.0 -1000.0 284.0
120.0 -1060.0 284.0
60.0 -1060.0 284.0
60.0 -1000.0 285.0
120.0 -1000.0 285.0
120.0 -1060.0 285.0
60.0 -1060.0 285.0
60.0 -1000.0 286.0
120.0 -1000.0 286.0
120.0 -1060.0 286.0
60.0 -1060.0 286.0
60.0 -1000.0 287.0
120.0 -1000.0 287.0
120.0 -1060.0 287.0
60.0 -1060.0 287.0
60.0 -1000.0 288.0
120.0 -1000.0 288.0
120.0 -1060.0 288.0
60.0 -1060.0 288.0
60.0 -1000.0 289.0
120.0 -1000.0 289.0
120.0 -1060.0 289.0
60.0 -1060.0 289.0
60.0 -1000.0 290.0
120.0 -1000.0 290.0
120.0 -1060.0 290.0
60.0 -1060.0 290.0
60.0 -1000.0 291.0
120.0 -1000.0 291.0
120.0 -1060.0 291.0
60.0 -1060.0 291.0
60.0 -1000.0 292.0
120.0 -1000.0 292.0
120.0 -1060.0 292.0
60.0 -1060.0 292.0
60.0 -1000.0 293.0
120.0 -1000.0 293.0
120.0 -1060.0 293.0
60.0 -1060.0 293.0
60.0 -1000.0 294.0
120.0 -1000.0 294.0
120.0 -1060.0 294.0
60.0 -1060.0 294.0
60.0 -1000.0 295.0
120.0 -1000.0 295.0
120.0 -1060.0 295.0
60.0 -1060.0 295.0
60.0 -1000.0 296.0
120.0 -1000.0 296.0
120.0 -1060.0 296.0
60.0 -1060.0 296.0
60.0 -1000.0 297.0
120.0 -1000.0 297.0
120.0 -1060.0 297.0
60.0 -1060.0 297.0
60.0 -1000.0 298.0
120.0 -1000.0 298.0
120.0 -1060.0 298.0
60.0 -1060.0 298.0
60.0 -1000.0 299.0
120.0 -1000.0 299.0
120.0 -1060.0 299.0
60.0 -1060.0 299.0
60.0 -1000.0 300.0
120.0 -1000.0 300.0
120.0 -1060.0 300.0
60.0 -1060.0 300.0
60.0 -1000.0 301.0
120.0 -1000.0 301.0
120.0 -1060.0 301.0
60.0 -1060.0 301.0
60.0 -1000.0 302.0
120.0 -1000.0 302.0
120.0 -1060.0 302.0
60.0 -1060.0 302.0
60.0 -1000.0 303.0
120.0 -1000.0 303.0
120.0 -1060.0 303.0
60.0 -1060.0 303.0
60.0 -1000.0 304.0
120.0 -1000.0 304.0
120.0 -1060.0 304.0
60.0 -1060.0 304.0
60.0 -1000.0 305.0
120.0 -1000.0 305.0
120.0 -1060.0 305.0
60.0 -1060.0 305.0
60.0 -1000.0 306.0
120.0 -1000.0 306.0
120.0 -1060.0 306.0
60.0 -1060.0 306.0
60.0 -1000.0 307.0
120.0 -1000.0 307.0
120.0 -1060.0 307.0
60.0 -1060.0 307.0
60.0 -1000.0 308.0
120.0 -1000.0 308.0
120.0 -1060.0 308.0
60.0 -1060.0 308.0
60.0 -1000.0 309.0
120.0 -1000.0 309.0
120.0 -1060.0 309.0
60.0 -1060.0 309.0
60.0 -1000.0 310.0
120.0 -1000.0 310.0
120.0 -1060.0 310.0
60.0 -1060.0 310.0
60.0 -1000.0 311.0
120.0 -1000.0 311.0
120.0 -1060.0 311.0
60.0 -1060.0 311.0
60.0 -1000.0 312.0
120.0 -1000.0 312.0
120.0 -1060.0 312.0
60.0 -1060.0 312.0
60.0 -1000.0 313.0
120.0 -1000.0 313.0
120.0 -1060.0 313.0
60.0 -1060.0 313.0
60.0 -1000.0 314.0
120.0 -1000.0 314.0
120.0 -1060.0 314.0
60.0 -1060.0 314.0
60.0 -1000.0 315.0
120.0 -1000.0 315.0
120.0 -1060.0 315.0
60.0 -1060.0 315.0
60.0 -1000.0 316.0
120.0 -1000.0 316.0
120.0 -1060.0 316.0
60.0 -1060.0 316.0
60.0 -1000.0 317.0
120.0 -1000.0 317.0
120.0 -1060.0 317.0
60.0 -1060.0 317.0
60.0 -1000.0 318.0
120.0 -1000.0 318.0
120.0 -1060.0 318.0
60.0 -1060.0 318.0
60.0 -1000.0 319.0
120.0 -1000.0 319.0
120.0 -1060.0 319.0
60.0 -1060.0 319.0
60.0 -1000.0 320.0
120.0 -1000.0 320.0
120.0 -1060.0 320.0
60.0 -1060.0 320.0
60.0 -1000.0 321.0
120.0 -1000.0 321.0
120.0 -1060.0 321.0
60.0 -1060.0 321.0
60.0 -1000.0 322.0
120.0 -1000.0 322.0
120.0 -1060.0 322.0
60.0 -1060.0 322.0
60.0 -1000.0 323.0
120.0 -1000.0 323.0
120.0 -1060.0 323.0
60.0 -1060.0 323.0
60.0 -1000.0 324.0
120.0 -1000.0 324.0
120.0 -1060.0 324.0
60.0 -1060.0 324.0
60.0 -1000.0 325.0
120.0 -1000.0 325.0
120.0 -1060.0 325.0
60.0 -1060.0 325.0
60.0 -1000.0 326.0
120.0 -1000.0 326.0
120.0 -1060.0 326.0
60.0 -1060.0 326.0
60.0 -1000.0 327.0
120.0 -1000.0 327.0
120.0 -1060.0 327.0
60.0 -1060.0 327.0
60.0 -1000.0 328.0
120.0 -1000.0 328.0
120.0 -1060.0 328.0
60.0 -1060.0 328.0
60.0 -1000.0 329.0
120.0 -1000.0 329.0
120.0 -1060.0 329.0
60.0 -1060.0 329.0
60.0 -1000.0 330.0
120.0 -1000.0 330.0
120.0 -1060.0 330.0
60.0 -1060.0 330.0
60.0 -1000.0 331.0
120.0 -1000.0 331.0
120.0 -1060.0 331.0
60.0 -1060.0 331.0
60.0 -1000.0 332.0
120.0 -1000.0 332.0
120.0 -1060.0 332.0
60.0 -1060.0 332.0
60.0 -1000.0 333.0
120.0 -1000.0 333.0
120.0 -1060.0 333.0
60.0 -1060.0 333.0
60.0 -1000.0 334.0
120.0 -1000.0 334.0
120.0 -1060.0 334.0
60.0 -1060.0 334.0
60.0 -1000.0 335.0
120.0 -1000.0 335.0
120.0 -1060.0 335.0
60.0 -1060.0 335.0
60.0 -1000.0 336.0
120.0 -1000.0 336.0
120.0 -1060.0 336.0
60.0 -1060.0 336.0
60.0 -1000.0 337.0
120.0 -1000.0 337.0
120.0 -1060.0 337.0
60.0 -1060.0 337.0
60.0 -1000.0 338.0
120.0 -1000.0 338.0
120.0 -1060.0 338.0
60.0 -1060.0 338.0
60.0 -1000.0 339.0
120.0 -1000.0 339.0
120.0 -1060.0 339.0
60.0 -1060.0 339.0
60.0 -1000.0 340.0
120.0 -1000.0 340.0
120.0 -1060.0 340.0
60.0 -1060.0 340.0
60.0 -1000.0 341.0
120.0 -1000.0 341.0
120.0 -1060.0 341.0
60.0 -1060.0 341.0
60.0 -1000.0 342.0
120.0 -1000.0 342.0
120.0 -1060.0 342.0
60.0 -1060.0 342.0
60.0 -1000.0 343.0
120.0 -1000.0 343.0
120.0 -1060.0 343.0
60.0 -1060.0 343.0
60.0 -1000.0 344.0
120.0 -1000.0 344.0
120.0 -1060.0 344.0
60.0 -1060.0 344.0
60.0 -1000.0 345.0
120.0 -1000.0 345.0
120.0 -1060.0 345.0
60.0 -1060.0 345.0
60.0 -1000.0 346.0
120.0 -1000.0 346.0
120.0 -1060.0 346.0
60.0 -1060.0 346.0
60.0 -1000.0 347.0
120.0 -1000.0 347.0
120.0 -1060.0 347.0
60.0 -1060.0 347.0
60.0 -1000.0 348.0
120.0 -1000.0 348.0
120.0 -1060.0 348.0
60.0 -1060.0 348.0
60.0 -1000.0 349.0
120.0 -1000.0 349.0
120.0 -1060.0 349.0
60.0 -1060.0 349.0
60.0 -1000.0 350.0
120.0 -1000.0 350.0
120.0 -1060.0 350.0
60.0 -1060.0 350.0
60.0 -1000.0 351.0
120.0 -1000.0 351.0
120.0 -1060.0 351.0
60.0 -1060.0 351.0
60.0 -1000.0 352.0
120.0 -1000.0 352.0
120.0 -1060.0 352.0
60.0 -1060.0 352.0
60.0 -1000.0 353.0
120.0 -1000.0 353.0
120.0 -1060.0 353.0
60.0 -1060.0 353.0
60.0 -1000.0 354.0
120.0 -1000.0 354.0
120.0 -1060.0 354.0
60.0 -1060.0 354.0
60.0 -1000.0 355.0
120.0 -1000.0 355.0
120.0 -1060.0 355.0
60.0 -1060.0 355.0
60.0 -1000.0 356.0
120.0 -1000.0 356.0
120.0 -1060.0 356.0
60.0 -1060.0 356.0
60.0 -1000.0 357.0
120.0 -1000.0 357.0
120.0 -1060.0 357.0
60.0 -1060.0 357.0
60.0 -1000.0 358.0
120.0 -1000.0 358.0
120.0 -1060.0 358.0
60.0 -1060.0 358.0
60.0 -1000.0 359.0
120.0 -1000.0 359.0
120.0 -1060.0 359.0
60.0 -1060.0 359.0
60.0 -1000.0 360.0
120.0 -1000.0 360.0
120.0 -1060.0 360.0
60.0 -1060.0 360.0
60.0 -1000.0 361.0
120.0 -1000.0 361.0
120.0 -1060.0 361.0
60.0 -1060.0 361.0
60.0 -1000.0 362.0
120.0 -1000.0 362.0
120.0 -1060.0 362.0
60.0 -1060.0 362.0
60.0 -1000.0 363.0
120.0 -1000.0 363.0
120.0 -1060.0 363.0
60.0 -1060.0 363.0
60.0 -1000.0 364.0
120.0 -1000.0 364.0
120.0 -1060.0 364.0
60.0 -1060.0 364.0
60.0 -1000.0 365.0
120.0 -1000.0 365.0
120.0 -1060.0 365.0
60.0 -1060.0 365.0
60.0 -1000.0 366.0
120.0 -1000.0 366.0
120.0 -1060.0 366.0
60.0 -1060.0 366.0
60.0 -1000.0 367.0
120.0 -1000.0 367.0
120.0 -1060.0 367.0
60.0 -1060.0 367.0
60.0 -1000.0 368.0
120.0 -1000.0 368.0
120.0 -1060.0 368.0
60.0 -1060.0 368.0
60.0 -1000.0 369.0
120.0 -1000.0 369.0
120.0 -1060.0 369.0
60.0 -1060.0 369.0
60.0 -1000.0 370.0
120.0 -1000.0 370.0
120.0 -1060.0 370.0
60.0 -1060.0 370.0
60.0 -1000.0 371.0
120.0 -1000.0 371.0
120.0 -1060.0 371.0
60.0 -1060.0 371.0
60.0 -1000.0 372.0
120.0 -1000.0 372.0
120.0 -1060.0 372.0
60.0 -1060.0 372.0
60.0 -1000.0 373.0
120.0 -1000.0 373.0
120.0 -1060.0 373.0
60.0 -1060.0 373.0
60.0 -1000.0 374.0
120.0 -1000.0 374.0
120.0 -1060.0 374.0
60.0 -1060.0 374.0
60.0 -1000.0 375.0
120.0 -1000.0 375.0
120.0 -1060.0 375.0
60.0 -1060.0 375.0
60.0 -1000.0 376.0
120.0 -1000.0 376.0
120.0 -1060.0 376.0
60.0 -1060.0 376.0
60.0 -1000.0 377.0
120.0 -1000.0 377.0
120.0 -1060.0 377.0
60.0 -1060.0 377.0
60.0 -1000.0 378.0
120.0 -1000.0 378.0
120.0 -1060.0 378.0
60.0 -1060.0 378.0
60.0 -1000.0 379.0
120.0 -1000.0 379.0
120.0 -1060.0 379.0
60.0 -1060.0 379.0
60.0 -1000.0 380.0
120.0 -1000.0 380.0
120.0 -1060.0 380.0
60.0 -1060.0 380.0
60.0 -1000.0 381.0
120.0 -1000.0 381.0
120.0 -1060.0 381.0
60.0 -1060.0 381.0
60.0 -1000.0 382.0
120.0 -1000.0 382.0
120.0 -1060.0 382.0
60.0 -1060.0 382.0
60.0 -1000.0 383.0
120.0 -1000.0 383.0
120.0 -1060.0 383.0
60.0 -1060.0 383.0
60.0 -1000.0 384.0
120.0 -1000.0 384.0
120.0 -1060.0 384.0
60.0 -1060.0 384.0
60.0 -1000.0 385.0
120.0 -1000.0 385.0
120.0 -1060.0 385.0
60.0 -1060.0 385.0
60.0 -1000.0 386.0
120.0 -1000.0 386.0
120.0 -1060.0 386.0
60.0 -1060.0 386.0
60.0 -1000.0 387.0
120.0 -1000.0 387.0
120.0 -1060.0 387.0
60.0 -1060.0 387.0
60.0 -1000.0 388.0
120.0 -1000.0 388.0
120.0 -1060.0 388.0
60.0 -1060.0 388.0
60.0 -1000.0 389.0
120.0 -1000.0 389.0
120.0 -1060.0 389.0
60.0 -1060.0 389.0
60.0 -1000.0 390.0
120.0 -1000.0 390.0
120.0 -1060.0 390.0
60.0 -1060.0 390.0
60.0 -1000.0 391.0
120.0 -1000.0 391.0
120.0 -1060.0 391.0
60.0 -1060.0 391.0
60.0 -1000.0 392.0
120.0 -1000.0 392.0
120.0 -1060.0 392.0
60.0 -1060.0 392.0
60.0 -1000.0 393.0
120.0 -1000.0 393.0
120.0 -1060.0 393.0
60.0 -1060.0 393.0
60.0 -1000.0 394.0
120.0 -1000.0 394.0
120.0 -1060.0 394.0
60.0 -1060.0 394.0
60.0 -1000.0 395.0
120.0 -1000.0 395.0
120.0 -1060.0 395.0
60.0 -1060.0 395.0
60.0 -1000.0 396.0
120.0 -1000.0 396.0
120.0 -1060.0 396.0
60.0 -1060.0 396.0
60.0 -1000.0 397.0
120.0 -1000.0 397.0
120.0 -1060.0 397.0
60.0 -1060.0 397.0
60.0 -1000.0 398.0
120.0 -1000.0 398.0
120.0 -1060.0 398.0
60.0 -1060.0 398.0
60.0 -1000.0 399.0
120.0 -1000.0 399.0
120.0 -1060.0 399.0
60.0 -1060.0 399.0
60.0 -1000.0 400.0
120.0 -1000.0 400.0
120.0 -1060.0 400.0
60.0 -1060.0 400.0
60.0 -1000.0 401.0
120.0 -1000.0 401.0
120.0 -1060.0 401.0
60.0 -1060.0 401.0
60.0 -1000.0 402.0
120.0 -1000.0 402.0
120.0 -1060.0 402.0
60.0 -1060.0 402.0
60.0 -1000.0 403.0
120.0 -1000.0 403.0
120.0 -1060.0 403.0
60.0 -1060.0 403.0
60.0 -1000.0 404.0
120.0 -1000.0 404.0
120.0 -1060.0 404.0
60.0 -1060.0 404.0
60.0 -1000.0 405.0
120.0 -1000.0 405.0
120.0 -1060.0 405.0
60.0 -1060.0 405.0
60.0 -1000.0 406.0
120.0 -1000.0 406.0
120.0 -1060.0 406.0
60.0 -1060.0 406.0
60.0 -1000.0 407.0
120.0 -1000.0 407.0
120.0 -1060.0 407.0
60.0 -1060.0 407.0
60.0 -1000.0 408.0
120.0 -1000.0 408.0
120.0 -1060.0 408.0
60.0 -1060.0 408.0
60.0 -1000.0 409.0
120.0 -1000.0 409.0
120.0 -1060.0 409.0
60.0 -1060.0 409.0
60.0 -1000.0 410.0
120.0 -1000.0 410.0
120.0 -1060.0 410.0
60.0 -1060.0 410.0
60.0 -1000.0 411.0
120.0 -1000.0 411.0
120.0 -1060.0 411.0
60.0 -1060.0 411.0
60.0 -1000.0 412.0
120.0 -1000.0 412.0
120.0 -1060.0 412.0
60.0 -1060.0 412.0
60.0 -1000.0 413.0
120.0 -1000.0 413.0
120.0 -1060.0 413.0
60.0 -1060.0 413.0
60.0 -1000.0 414.0
120.0 -1000.0 414.0
120.0 -1060.0 414.0
60.0 -1060.0 414.0
60.0 -1000.0 415.0
120.0 -1000.0 415.0
120.0 -1060.0 415.0
60.0 -1060.0 415.0
60.0 -1000.0 416.0
120.0 -1000.0 416.0
120.0 -1060.0 416.0
60.0 -1060.0 416.0
60.0 -1000.0 417.0
120.0 -1000.0 417.0
120.0 -1060.0 417.0
60.0 -1060.0 417.0
60.0 -1000.0 418.0
120.0 -1000.0 418.0
120.0 -1060.0 418.0
60.0 -1060.0 418.0
60.0 -1000.0 419.0
120.0 -1000.0 419.0
120.0 -1060.0 419.0
60.0 -1060.0 419.0
60.0 -1000.0 420.0
120.0 -1000.0 420.0
120.0 -1060.0 420.0
60.0 -1060.0 420.0
60.0 -1000.0 421.0
120.0 -1000.0 421.0
120.0 -1060.0 421.0
60.0 -1060.0 421.0
60.0 -1000.0 422.0
120.0 -1000.0 422.0
120.0 -1060.0 422.0
60.0 -1060.0 422.0
60.0 -1000.0 423.0
120.0 -1000.0 423.0
120.0 -1060.0 423.0
60.0 -1060.0 423.0
60.0 -1000.0 424.0
120.0 -1000.0 424.0
120.0 -1060.0 424.0
60.0 -1060.0 424.0
60.0 -1000.0 425.0
120.0 -1000.0 425.0
120.0 -1060.0 425.0
60.0 -1060.0 425.0
60.0 -1000.0 426.0
120.0 -1000.0 426.0
120.0 -1060.0 426.0
60.0 -1060.0 426.0
60.0 -1000.0 427.0
120.0 -1000.0 427.0
120.0 -1060.0 427.0
60.0 -1060.0 427.0
60.0 -1000.0 428.0
120.0 -1000.0 428.0
120.0 -1060.0 428.0
60.0 -1060.0 428.0
60.0 -1000.0 429.0
120.0 -1000.0 429.0
120.0 -1060.0 429.0
60.0 -1060.0 429.0
60.0 -1000.0 430.0
120.0 -1000.0 430.0
120.0 -1060.0 430.0
60.0 -1060.0 430.0
60.0 -1000.0 431.0
120.0 -1000.0 431.0
120.0 -1060.0 431.0
60.0 -1060.0 431.0
60.0 -1000.0 432.0
120.0 -1000.0 432.0
120.0 -1060.0 432.0
60.0 -1060.0 432.0
60.0 -1000.0 433.0
120.0 -1000.0 433.0
120.0 -1060.0 433.0
60.0 -1060.0 433.0
60.0 -1000.0 434.0
120.0 -1000.0 434.0
120.0 -1060.0 434.0
60.0 -1060.0 434.0
60.0 -1000.0 435.0
120.0 -1000.0 435.0
120.0 -1060.0 435.0
60.0 -1060.0 435.0
60.0 -1000.0 436.0
120.0 -1000.0 436.0
120.0 -1060.0 436.0
60.0 -1060.0 436.0
60.0 -1000.0 437.0
120.0 -1000.0 437.0
120.0 -1060.0 437.0
60.0 -1060.0 437.0
60.0 -1000.0 438.0
120.0 -1000.0 438.0
120.0 -1060.0 438.0
60.0 -1060.0 438.0
60.0 -1000.0 439.0
